x,y,z
67.36323436632598,64.19811850342688,1.6765904199285018
74.26915658784,58.09175344215391,0.786411939529249
20.10597624181276,18.935754409399433,-1.9071929921120403
17.868736367925933,15.241402185341327,-1.8352886168783313
61.68977231130824,64.7534276726954,2.0543763643568775
40.990331707010526,35.31126630908557,0.7879395550718116
21.45566366401936,22.264797141535283,-2.01284920112325
11.957001902890523,9.20679470241189,-0.7418902710022746
63.64063689452684,60.65676964655937,4.649214994035699
41.12502712444405,35.447956143136246,2.0421436730279146
36.62152511812928,34.66094197624529,-2.498031447885219
35.58070295255152,30.522695405715023,-2.5331870833599193
70.63879553003052,67.47100096923302,11.412968748396295
74.16019995189039,64.12085053456212,7.539553723830828
35.51695758315244,37.020605036946435,-2.296049236580497
11.872147329544608,9.136213271851341,-0.3972289906439059
74.23090570333407,64.39229849203527,17.383865205038568
42.68628677005255,40.41648563931886,-1.5870165396589613
3.3805749056285324,2.6943912877128673,-1.623460676545406
41.098001323275064,42.78238650297963,-1.3151913018905996
41.10039380870993,35.180936295862125,-1.7047440418374802
5.028908258654796,4.517845108022524,-1.6164192166673577
7.200855220870772,5.981492109655259,-1.6437115608082544
8.62593141341581,7.929963330670482,-1.6428896649881417
11.325744317270217,9.527772775041635,-1.7248121396757452
61.78995357343295,64.44195933300166,-0.011344844489193429
41.04919545566956,35.13224122511235,-0.45501227620282664
12.277910146749123,11.393005529035099,-1.68311145154921
11.976261922201136,9.154070741131846,-1.2515082666947994
20.185754112880858,18.880872300815362,-1.9068997286593263
17.942333485578292,15.198782568549666,-1.8361606923351173
61.92000137243662,64.54509197279236,2.060425624175869
41.027557171988775,35.09660294627843,0.7903413555503322
21.543626688511928,22.20299152139523,-2.0119863870672225
11.975699737503398,9.156882185912263,-0.7398646311247614
63.952227847182336,60.53208879763664,4.6622589528588065
41.2384549004443,35.2979868481614,2.0454140198275175
36.77065133480973,34.56209215189155,-2.4968072025834163
35.792515208756626,30.490979368934596,-2.5381842841685023
70.85498927003016,67.20896350648019,11.416758442782633
74.42153542178647,63.89688823674031,7.550151805185834
35.65360368236423,36.90677793141094,-2.2932712403905087
11.874759115549077,9.074342111812987,-0.3947830215963993
74.55754446717252,64.2241723919811,17.41482854454154
42.83507897312859,40.27722472935295,-1.5834495547458616
3.3892709048161858,2.684263095673704,-1.6231983421940475
40.69205007826266,42.063889425307615,-1.29098362260069
45.09793089590141,38.34910451870065,-1.8802439776148754
5.0467683680521045,4.504575964423545,-1.6171010985515906
7.223984797432591,5.960551899773099,-1.6439118491123401
12.091369073831222,9.215196261998244,-0.06254206977439261
8.661511966900598,7.909594974195039,-1.6440592476995153
11.364288944863425,9.495011442722461,-1.7248886430374646
62.03587652467491,64.25061333358725,-0.005534849865099001
12.331404189305832,11.365371648989194,-1.6842947092722724
12.023190090241656,9.126044177573963,-1.2524545214289642
47.54098261249653,36.609247971051,0.5740741778279164
20.279931902839454,18.839307225321406,-1.9081355856913453
18.01584595706816,15.155831234190005,-1.8370270788970386
62.163375862807655,64.35033417929479,2.0669077233782875
41.69651912870114,35.422257599013015,0.802234454877824
21.634162774414214,22.1437303523629,-2.0114064353421273
12.01315594106009,9.121574326722698,-0.7393568847796397
64.17065888314995,60.318302784264965,4.6687793666267865
41.37263082451989,35.16580751329059,2.0496583791812686
36.89916049989838,34.443461191566456,-2.494074954687581
35.91634007361505,30.383106259501396,-2.5363912004433202
71.20311095844843,67.07173321130605,11.441699760733425
74.68822859075854,63.67711559584813,7.561364689550598
35.80650314751193,36.80971462585358,-2.291653995495759
11.921427001780488,9.046683269842662,-0.39457724157711643
74.79125755670246,63.974968527067766,17.424315988762554
43.09130829797673,40.23861142230875,-1.5843474316232078
3.4007080275068162,2.6764197038810424,-1.6246474619055176
40.99367155388197,42.084164933178776,-1.2928091837541118
45.25520152421711,38.21386624294128,-1.8773354296952793
5.061769617247066,4.488624138769444,-1.6166772476144393
7.253048822632487,5.944560083253879,-1.6457261324871335
12.13061998719409,9.183927215987149,-0.06177040552330945
8.684145881538646,7.87975038468461,-1.642695682408641
11.41182793110243,9.469768056715546,-1.7265492007342462
62.30904182827885,64.08706877242366,0.00020561484767400717
71.71279803261494,60.643535032267444,-0.9176446175067057
12.379029066523449,11.33208581048889,-1.6845621054260052
12.089050118035491,9.112291405241912,-1.2557465999501842
74.83587517963196,57.28906310140161,0.8056885756569954
20.3623895974003,18.78642661875282,-1.9081371930314197
18.077535536117328,15.107907119076826,-1.8369200136208517
62.375521104690584,64.14537541332643,2.072512317716429
41.34005890135835,34.884426720408506,0.7986487452242064
21.717963917085775,22.08493195402783,-2.01063443669994
64.39426909082813,60.109130917357774,4.6757200575893
41.60699335234139,35.11844856776963,2.058495694197291
37.030204086088204,34.327075543824805,-2.4915506051805107
36.06118172127107,30.29279417233327,-2.536223574394652
71.50763289369664,66.8921362394631,11.459771791989635
74.93724574326882,63.46405168301458,7.5716557882012685
35.93610019792185,36.70100028949873,-2.289030180880454
11.98555207278536,9.035378319457243,-0.395375182246226
75.02511128660764,63.74815663701135,17.43625113175945
43.47532273720665,40.33160177375536,-1.5909658401803013
3.408908138825399,2.6667347656990366,-1.6243975517516167
41.495119464238755,42.321888619392816,-1.3022719434301908
45.64698973356662,38.28930194422375,-1.8856801541980484
5.078797065495401,4.476024832225281,-1.6173787052489044
7.272067773096898,5.922081754585218,-1.6451462093132057
12.222246735659342,9.189241683477123,-0.06200610496687908
8.716702546364942,7.856444920262519,-1.6432193053890842
11.445547569006928,9.436042524246142,-1.7261417756307829
64.8435219629272,66.26469728175834,-0.0008241510240606376
71.8301569459988,60.33747652830828,-0.9102790399798555
12.421710357899057,11.297987047140111,-1.6844260668124924
47.38652514892629,35.9825767045365,0.5787724670045677
20.435625594656564,18.73127037333091,-1.9076132605978975
18.156942392182938,15.069479749366451,-1.8384746049332659
41.4025747841692,34.69260387418165,0.8014546773593925
21.802622091669157,22.01924764561178,-2.0094695591501748
12.149817533447,9.100781266332964,-0.7434289765830693
64.59216607879178,59.89671789263546,4.6813488160441015
37.16078413544977,34.22203716581769,-2.489616270705042
36.127163218434276,30.146475818044927,-2.53061828153854
71.66067173529734,66.59364990547896,11.455443747253483
75.2027241114649,63.242096533031855,7.582900412956311
36.06612778086807,36.57991234922337,-2.2858435092859852
75.347405892779,63.573631995468794,17.46658050223879
43.958345731981645,40.49916213935199,-1.601067158134259
3.4175072318410984,2.656508365062514,-1.6241341561658647
41.37576291129079,41.907384074941184,-1.2887901363227032
46.40828054724557,38.65722153252087,-1.9102573352927141
5.096538080209759,4.462552638190048,-1.6180577282259483
7.29200314610282,5.898356352399621,-1.64453524747312
8.752109809547413,7.835671705088006,-1.6443826628378215
11.483824495207855,9.402801426147617,-1.726211650435116
65.14367351141675,66.11098193466539,0.005114391362492088
46.49090842509212,38.72131805280258,-0.5158736234197405
12.472088031267264,11.267011898664286,-1.685143212923137
16.81991945332921,12.552111869222692,-1.8282375448814165
47.38337324497872,35.72209447522025,0.5818010339056648
20.50313201051866,18.664237599336715,-1.9060747307490153
18.23018827646079,15.025561229331116,-1.8393250331756397
41.620746742522314,34.63161822132402,0.8066250726190753
21.954304232912673,22.021429004192154,-2.0151789678341494
12.152066842152216,9.038363441421959,-0.7401388054459714
64.81143247860261,59.68330453360961,4.688101774274067
89.40912174577907,74.6214340190467,4.2301448114261175
37.30581119578646,34.118195958842584,-2.4881450873639928
36.2652840364785,30.05002695184003,-2.5299710338162704
71.93193073190464,66.38223125954015,11.46847979935061
75.4614669906545,63.013964017913,7.593555533556283
36.20415793571198,36.466898465117325,-2.283232417199715
11.609450256423344,8.625324821805025,-0.3715819522209925
75.58798809037374,63.3291498725526,17.478186946722033
44.12522384385059,40.371529989891336,-1.5981302438049825
3.426070749933691,2.6462518533651975,-1.623870483165363
41.66161532095982,41.906588787407145,-1.2899279338604304
46.025585549453375,38.06764932151908,-1.8827051839413125
5.10854550322397,4.443842808994905,-1.6165278266341825
7.3148789130456935,5.877052880143533,-1.6447305159695258
47.95053702308917,35.89556293796058,-0.7933342019367249
8.778719059106638,7.806765636125739,-1.643619306710451
11.525058673475264,9.371933166434891,-1.726807085988092
41.731298937309106,41.97045373719665,0.07382822731927466
46.5603681453369,38.50683840746127,-0.5107682197554493
12.519452227163152,11.233145969714402,-1.6854020291841403
11.676472604475693,8.615565259298949,-1.1909914914626092
47.82356827695923,35.79592600865731,0.5886190698592537
20.591038154957275,18.615781268320177,-1.9066734251472157
18.318688214498508,14.994020353206245,-1.8419120107786981
72.40993288255251,59.94339639844743,1.2764613223421868
22.03879171132244,21.954873363964396,-2.0139989185821787
65.01820850655312,59.4582705113225,4.694041423093563
72.36312227709041,59.93912557776033,3.451438608996182
37.43288164500568,33.99758264344691,-2.4853871861889036
36.47084492489561,30.008988164499733,-2.5344243899954435
72.17915963528174,66.14825728449743,11.477844671994573
75.73480039736332,62.797599727973335,7.6057356414087955
36.34179811812565,36.35339833676573,-2.280615097540033
11.593903438737154,8.552890907203707,-0.368386947866053
75.81565892547735,63.073696695682465,17.487025621502937
44.226767762259946,40.18394272931549,-1.5925483520490022
3.4289792965620136,2.6314138382176973,-1.620184971051477
41.5389031362748,41.49338883679053,-1.2764982048871591
46.10197865392767,37.8626944457675,-1.8761160948063575
5.123336182718482,4.427673046731088,-1.6161015840703457
7.346786502792864,5.863102933681756,-1.6473446470875144
69.04852363682015,62.7060588079026,-0.43533457557776495
48.19680084649337,35.833632038432214,-0.7920135358510618
8.806826198714486,7.781872491001767,-1.6435345833313435
11.56927324514513,9.343409502933763,-1.727927598304272
42.20125171715892,42.15220989981094,0.0769155274050929
46.604225599525435,38.27196770852429,-0.5053012780644093
12.572620177021507,11.20441667786898,-1.686567037033875
11.689774039843398,8.564568591161597,-1.1880606331807533
68.89420527329638,62.55664312395369,1.7201017512384777
48.09808316577939,35.74280472726657,0.5940564802684667
20.675886838952945,18.564264591405703,-1.9069605877896136
18.38921675540674,14.95251217622168,-1.8428301698340066
22.113657141200676,21.88611415907128,-2.0123443474029608
11.66537497762462,8.54957518107797,-0.6951173734330833
65.32757627283758,59.326655648652604,4.707198094345325
37.56841250681516,33.88456138034059,-2.4832621299451074
36.59941907873307,29.90350106546759,-2.5330562496133204
72.4843273906641,65.96689064829711,11.49644187048372
75.9844258215086,62.58303877442458,7.61638524853185
36.4671735382826,36.23997374835467,-2.277774023856946
11.589377204422126,8.492143762224602,-0.36588090609019003
76.06802610826728,62.86074742223016,17.5038736273069
44.276182414914246,39.963471083654134,-1.585376114065281
3.4426638762081545,2.62616848695807,-1.6233556157169076
46.19568619731902,37.685927229615785,-1.8708487097719453
5.145927204413054,4.419960799665488,-1.619006858222686
7.365534371936146,5.840314228391067,-1.646761082230118
43.805353074169176,39.44826234991474,-0.20277688690380052
8.84498704773115,7.763339224277393,-1.6453327123820196
11.60261131781665,9.309114528751605,-1.7275126639722473
65.7476991513935,65.37103932167271,0.023442637030317126
46.77344449351535,38.154305482241625,-0.5020213132161937
12.609045778257025,11.164278810386827,-1.685511348009853
11.714222319804461,8.524990211197597,-1.1867417116333556
40.28868492112205,36.26089325114704,1.078307234359241
48.03870906196669,35.453785626727445,0.5964652474825175
20.748531774856474,18.50790794778868,-1.9064187103447372
18.462227076798243,14.907570377988334,-1.8436632078289583
22.2062308151945,21.827371564104713,-2.012013513515232
11.65439720664187,8.483988489374482,-0.6911777633496947
65.54953055474549,59.13528323781187,4.714719730911393
37.697747268855196,33.77749385377436,-2.481299676517158
36.67918976551916,29.768484157933372,-2.5285986201421378
72.70998291280229,65.7354878383698,11.504118481164571
76.24734723936447,62.356813331101264,7.62768957023609
36.60412386631473,36.125441642091126,-2.275143104455784
11.582783311264182,8.427209240716815,-0.3631731362601333
76.37323387573872,62.66858198245457,17.530811574150892
44.325573369579445,39.73011569112049,-1.5777747281168137
3.4511212120282173,2.615824251506572,-1.6230911552945897
41.15432847237802,40.55434466435355,-1.2455781359769476
23.23911363948393,18.750411236193656,-0.8347979728163206
5.1548850828514885,4.398553497468946,-1.6163722659870094
7.3821362117892795,5.813801382915542,-1.645340205987602
43.76345828774398,39.13639475294587,-0.19723222857464884
11.701812237804477,8.489798689071984,-0.04332549706127914
8.87723415023691,7.739368571872758,-1.6458464296455755
11.654424877800345,9.283278161349143,-1.7296321373455286
66.26729773928106,65.41009678261166,0.029257882988653144
46.4307486427017,37.606422802831965,-0.4909242415074338
12.670945251701525,11.143088812129012,-1.6880327214176334
11.733548928328073,8.478679428856722,-1.1845938093727137
69.7775456576861,51.17603985004652,0.7898683611392552
20.842052945978292,18.463671432719853,-1.907609507865081
18.532053308306015,14.859784010414579,-1.8441430833977757
22.29012544898529,21.75984829190249,-2.0108202856563895
11.66207254378129,8.426463643796005,-0.6884008270917907
65.7765042771757,58.90695846213778,4.7218172324988945
83.61990900409965,67.82959498569033,3.953027938017359
37.83549936612425,33.65422256451826,-2.4787767075504226
23.326797773934274,18.73803416044539,-1.5214791095330473
72.9960150467195,65.51249443830316,11.51846970398538
76.51269146053903,62.13205960672936,7.639311677235983
36.74070681683383,36.01041127772499,-2.27250578432053
11.595230172044872,8.376578480810645,-0.36141737139902835
76.62612051777165,62.43272637875566,17.54594239802939
44.329151358731714,39.456934862374176,-1.5684001753458234
3.45712870543031,2.602686008453542,-1.6211032453126355
42.068693184905946,41.1594251378775,-1.2683036633126685
23.291340913714336,18.65431462550433,-0.8319746590044939
5.17601347567052,4.386492725724351,-1.61812893820517
7.411842279923043,5.7958358626949655,-1.6471119780442114
69.83924856126615,62.10983513742256,-0.4176107717431758
11.719085515465379,8.439160995925429,-0.04204197836125223
8.910722228142324,7.71379842250071,-1.6463199195401024
11.690742935139074,9.244761692235043,-1.7291131331447118
66.41446135557477,65.07879058909977,0.035971982113416456
57.171714124904376,45.996268069631284,-0.6406625834885102
12.72286787826317,11.108905623032541,-1.6886766685181667
11.68970572397339,8.383572914761205,-1.1746043693572148
69.91575826187326,62.16946826557567,1.747401381422355
68.48687104101236,49.844506828859544,0.7831621511553521
20.929738087295398,18.407498096082293,-1.9077853213230784
18.610518613444185,14.813528761148635,-1.8452322128284355
66.55225799836512,65.20435756930549,2.1942297098500814
56.82098633190119,45.691191755419474,1.0498042973354238
22.386114510612902,21.696558587456543,-2.010375434792562
11.672703504087712,8.371340606766934,-0.6858776205464885
66.00863798833322,58.683091896439194,4.72933827503246
82.31127763170969,66.26917610302216,3.8903482014898265
37.98181033292418,33.5383615646103,-2.4768818698799375
23.28563139588172,18.56664711885426,-1.5112518254452894
73.22508565074084,65.23799243970373,11.524062330842266
76.79435345537715,61.89786883246435,7.651896440674253
36.883164962604496,35.8885004634985,-2.2696905152413134
11.618568803568355,8.331071454890637,-0.3600881632024964
76.8768337798935,62.1725456030866,17.558645389089474
44.36507811810209,39.20043552027938,-1.5599135301426543
3.46508605091374,2.5928115973033927,-1.6208517442388588
42.31292818027456,41.127506287047794,-1.2683565010929823
23.265030667161998,18.508552258720897,-0.826179415543806
5.186984521270989,4.3683748397570605,-1.6166185699033897
7.421167030573611,5.76551549492344,-1.6441093886771518
11.755968163068736,8.408856199385829,-0.04130789028308546
8.9474530466623,7.696249873389994,-1.6481482168196366
11.728409432032192,9.216934470763205,-1.7297952809517845
66.52628420204157,64.781856150943,0.04174805839622142
46.79983114737539,37.37227266777406,-0.484298610231266
12.764945445238487,11.07351997673308,-1.688521394309079
11.707067861042582,8.339377087772046,-1.1725124628769685
40.19650055217269,35.42823228908396,1.078752630177135
68.37237920027937,49.41690134540104,0.786292489678672
21.007965787149022,18.35544410282323,-1.9078372554177028
18.67758072838916,14.7682654988015,-1.8457823305331065
57.05248258423329,45.569116093465354,1.0558178851315354
22.474448382014664,21.64053138873479,-2.010130425480857
11.701500818607293,8.338468818073412,-0.6852541277537072
66.28727854461452,58.561612274478115,4.741354018285616
38.09238182901012,33.42572895327993,-2.474223588348934
23.327599838537644,18.48248017957627,-1.508272743095831
73.52924275101675,65.09856154112707,11.545760960911457
77.0445250879586,61.681770410366816,7.662904334820652
37.018494677114866,35.78438392436522,-2.2675952246925366
11.658362626085648,8.303423627382575,-0.3597991998139117
77.16964712958199,61.99007099564779,17.58529709581854
44.63507749497595,39.17903175938105,-1.5616751387238992
3.4762735263847646,2.584618665004692,-1.6222963076003738
42.40382677075663,40.931147248078226,-1.2626492409540562
12.18159128904901,9.555728280053888,-0.3330339387852103
5.198608718843144,4.34940941654722,-1.615086858947879
7.4467066446180565,5.746124839559587,-1.645103777300037
44.76907354576604,39.209451029447834,-0.1903850744223473
11.84614295029013,8.413788173159176,-0.04154824665521262
8.979516109775858,7.671864136397777,-1.648655722944272
11.769147234513696,9.18502750265988,-1.73037516851293
46.98866171985825,37.25770907843185,-0.48103299367531466
12.814788108977742,11.041069287320607,-1.689215062031086
11.761279464035443,8.318682083841441,-1.1746530983107915
40.349076157695634,35.315754897707386,1.0830548235367932
66.91656167002553,48.009719950856926,0.777614141980284
21.089231754271207,18.299476193272262,-1.9077904492775724
18.750191956839675,14.722018363213953,-1.8465938721258253
66.9208683704303,64.68340146385272,2.2041695410161455
22.55204914365251,21.566431300984835,-2.008352773439802
11.739518366976979,8.30621291029357,-0.6850319704460612
66.51415483715044,58.35252073608536,4.749017670968221
79.62239348679549,63.23775631419488,3.7628779380640522
38.23822547732077,33.32060869306815,-2.4729075851642546
12.037759333807633,9.402859241141913,-0.6695642646965672
73.77229289157492,64.85864087051641,11.55520295639613
77.31106624196129,61.45616881523341,7.674877987794141
37.15401152039755,35.66777395647134,-2.26493656779731
11.673502543613388,8.255027461293064,-0.35820324241058693
77.42046989882408,61.75104306080622,17.600472830844634
44.93327846814404,39.166950046868806,-1.5640335251985888
3.4817287970415673,2.5719405807026643,-1.6203216017826227
67.02796589594472,64.37974478103686,-2.097589564235346
12.091776705865737,9.418132616198914,-0.3266320724340093
5.213069566802393,4.332925974463345,-1.6146573929414236
7.462948485342864,5.719369652966552,-1.6436810326451197
9.00853018794774,7.64475747530517,-1.648521674943639
11.816031874202547,9.157848957795808,-1.732004547466917
67.09042902779116,64.43027315409039,0.053930227074632936
12.864560272475424,11.008394305129595,-1.6899050723172422
40.73928958906246,35.410493182794696,1.0927418013152141
66.6986516395198,47.5033569833657,0.7798948186360417
21.17635706740139,18.248416378310782,-1.908346502353948
11.951950013910643,9.268659052778446,-1.087331537125032
67.14526818052414,64.45102599303084,2.210391949097874
78.30601620700236,61.71104575742755,1.3907539896901864
22.69274463331834,21.552815197938337,-2.012830088081383
11.800224120811649,8.289985354440939,-0.6865551215661752
41.18448075376118,35.810998457224784,2.992992480531395
38.37472115645809,33.2070448310119,-2.4709503991408406
12.041510224674376,9.340220735826462,-0.6664666026069106
74.00561867134809,64.6099392589596,11.563269829671762
77.580095971405,61.23192283253219,7.6871716790000635
37.29204352879821,35.55341021336831,-2.2624628525359247
11.691690575783552,8.208949550464189,-0.35676570768975263
77.59345480889806,61.449755539913355,17.598246645498396
44.87288832810882,38.84104454072318,-1.552325559068577
3.492860147708476,2.5636684522090434,-1.6217651292156923
67.25160376544481,64.14711362492515,-2.0913685623278906
11.95396047265228,9.244275023016678,-0.31819252961497585
5.2333048056891025,4.321405403124313,-1.6164315692739055
7.457445660195918,5.675717611448077,-1.6366250115085375
41.19082998497581,35.55995073672462,-0.15076187659534995
48.70077024984034,34.42064394991621,-0.7562799382197603
9.033176947128734,7.616449762416141,-1.6477856683393304
11.850367215254078,9.12068294991062,-1.7315271370973901
67.38345141410247,64.26373297665164,0.06002924452225229
12.224902847360118,9.455733123633982,0.018204853882271
12.914242416270142,10.97551555152843,-1.6905917337729517
17.344272000704787,12.13922328305486,-1.8328872168055765
41.206165085421276,35.56847271081874,1.104188908773656
65.40429981981555,46.23828252149091,0.7723697859535963
21.257360978613686,18.19173774578122,-1.9082884230424804
11.972507190633909,9.22321154915985,-1.0853288926186515
47.49623540541549,37.12379406058403,0.914752535169471
22.783670382115854,21.498334300898208,-2.0128489443180615
11.828333258660908,8.250416476039133,-0.685578205472726
41.04874150263746,35.44347382457119,2.978816164533345
74.51525852180345,58.333085472533554,3.526560942654633
38.51393265221373,33.09550429261924,-2.469195198494895
12.038672274588558,9.272750778711387,-0.662912880829772
74.25310321128033,64.37341327463675,11.573659831235098
77.74383061320782,60.94614427198337,7.689999833964969
37.43224859177213,35.45323679267396,-2.2607278659624632
11.754032352347386,8.197059582840373,-0.35756716270620376
77.56290747897194,61.01037365566231,17.552469811733705
44.99772344978299,38.69105329400183,-1.5483797364572538
3.497816812230456,2.5514773261611925,-1.6198036948744736
11.945972781636526,9.17666768721989,-0.3155849408191348
5.249876850220812,4.308126429519722,-1.6171238024246113
41.13806187818672,35.27853663416642,-0.1458810607970672
64.73832141991812,45.46918378564005,-1.060428804959518
9.066722529071335,7.59576877910484,-1.6489659961465464
11.883029304988115,9.085376639881737,-1.7310986407581264
12.958966362526862,10.94200163868432,-1.6908787935167036
17.413122088166958,12.10382423208479,-1.8350024166166246
41.29576296237696,35.409702205245736,1.1070814664267457
65.22602434709408,45.79024921853641,0.7746652096730617
21.3441660757743,18.14614029179734,-1.9092292217054165
11.97400391258374,9.163060014248389,-1.0812514091881769
47.55512121355617,36.91852408250157,0.9177128123831539
22.87735822574957,21.44625197319712,-2.0131464818323277
11.864714929073406,8.219609199747211,-0.6853967772063128
41.23769431083937,35.371257932616984,2.987307703614768
38.65013995391128,32.9926652599939,-2.467815082804205
12.049700377396606,9.219681173789922,-0.6605645153204389
74.55781256798019,64.20866926891286,11.594377588636235
76.25883432079237,59.374310696052234,7.5330422360213865
37.56926074362662,35.349811578160384,-2.258794499035239
75.97971613853557,59.35769938253344,17.158080305426466
41.189270207019106,35.166661988355564,-1.3922868245959372
3.50560292863346,2.5414700777425487,-1.6195510868415284
11.956625978137065,9.123899377148422,-0.31380331769175945
5.2634766012915986,4.29230113672805,-1.6167138049092837
7.509153675973751,5.641287275310776,-1.6394751065059632
41.214559534833434,35.10969306602816,-0.142067887973508
64.06968940709208,44.667400216490634,-1.039025759545915
9.098508806095172,7.570883477545369,-1.6494663358033899
11.923403240562068,9.052807269410865,-1.7316691194197695
12.102365487296533,9.235600468451295,0.022706720086733273
12.997546949066672,10.903161179425734,-1.6902583777620857
17.465594143291494,12.056725628709488,-1.8351715090583811
41.162961706023964,35.06086954236933,1.104948452275373
63.927335260513345,44.562836711503294,0.7666265869031736
21.424817414487215,18.0950030373249,-1.9095577635714012
12.030430940187362,9.14235575832997,-1.0830031661137363
47.36329247922075,36.50677025814372,0.9168643439873632
22.948500292600304,21.36524153752669,-2.0107793383271466
67.44140540866861,57.550348629287015,4.781981247298659
75.03495332003733,57.92552178312107,3.5450203962813425
38.76743581451658,32.86190248135867,-2.46457329163469
12.005133013495179,9.12073360522002,-0.654035803262919
74.80704560620656,63.97265053658539,11.605260702328101
75.32612868097821,58.227427475789064,7.429547839400409
37.71505654446824,35.242066619645975,-2.2568708442644927
43.596009258751,30.232601269512045,-1.865782388514774
74.67938981122175,57.923353663679215,16.827191258597647
45.2464516877058,38.37687082123755,-1.5400417270231783
3.5199436476405235,2.534736396237922,-1.6226882676558878
12.020876673366136,9.106100917080205,-0.31410563586716317
5.278450626700807,4.2747523670414855,-1.6162600298892509
7.532168882624727,5.617881948699745,-1.6396297944270717
63.35783584239141,43.827986533701996,-1.0166140533169332
9.131503602912572,7.544359910337044,-1.649925743253488
11.9605472894448,9.017644861705117,-1.7317118722444302
12.147987062090271,9.20264821112941,0.02360897663591008
13.051879389667649,10.870052526816888,-1.6913313062139228
17.522055518132873,12.00347082985683,-1.8351917520247532
41.086029842481004,34.738008849663736,1.1041780548550648
63.61921410260394,44.00414514970855,0.7679928274479011
21.526817627325176,18.049071878229885,-1.9112052258667176
74.46298713527999,57.03719475261922,1.3444879176419835
23.0317711326757,21.288236802663654,-2.0091562277026314
30.65870897021959,21.07947272365921,-2.1012017776362986
67.67420539617757,57.344601798478756,4.790327977629578
74.61111425947608,57.185101259683236,3.5234466465183347
38.905656802116546,32.74875374224039,-2.46279583441799
12.11226677164343,9.138668181589033,-0.6585233529227135
75.05855848090067,63.73823980784325,11.616618587170501
74.30139123439412,57.00198153998833,7.31701789642202
37.86078654904716,35.12178494058058,-2.2543853133807907
43.73868300486805,30.097138592659043,-1.8634541460102696
74.52744699863666,57.371380527908926,16.753121669618352
45.52957323465001,38.333881255784526,-1.541288499109497
3.530975071253616,2.5262931639894797,-1.6241296209356075
5.298551253837383,4.262923741424993,-1.61802925353965
7.551043537711239,5.5932473289418585,-1.6390103456186318
71.89807661124556,60.49391030827861,-0.3702637166325056
49.76731651016154,34.16533976190192,-0.7512121257448978
9.167920770233318,7.525793365209505,-1.6517376272611444
12.000743649889163,8.984727969964107,-1.7322771238646255
12.201490969125961,9.178824291132653,0.024333638426670967
13.095132155964473,10.831245828760961,-1.6911018365340817
17.58944142450479,11.961936503708511,-1.8368312164354657
41.2642368039246,34.6450023494194,1.1091599769288203
62.539110748919484,42.93555269752689,0.7619110706643408
21.61038881754205,17.993483808362118,-1.9114258607100112
47.85378526687804,36.36042596826274,0.9288761895473254
23.11622337329819,21.22693939795754,-2.0085876043857156
67.86976586524104,57.106985980031226,4.796181126870185
47.66404970025874,36.22439195718567,2.307846786268106
39.05273111924733,32.642737060595664,-2.4616390857730392
75.3639258105498,63.54904994523665,11.636340918805677
73.32863819943832,55.87075572919387,7.2112730075958105
37.98227919181954,35.00310828995929,-2.2514768548598685
43.867273125200974,29.973893331926902,-1.8613323653816782
72.8646512903687,55.70690545183521,16.346107483745435
45.58839636577863,38.127757660197766,-1.5348685311788262
3.5357769251287534,2.514015293472661,-1.6221675769879316
43.79503977444986,40.300860662988306,-1.249424884347919
11.641281359903992,8.694224080967192,-0.2933741395224728
5.312003314090628,4.246934263872409,-1.6176173647421124
7.5720254355282535,5.572140856379732,-1.6392248255677464
62.048244410505845,42.30256627023473,-0.9758953481707093
9.193442514652117,7.495443185547828,-1.650955905691349
11.682966055157292,8.681984647490093,-1.67359168985731
47.697990092405966,35.99899284586325,-0.45023626556981894
13.145588987999483,10.80209773696831,-1.6922812355203865
17.64811396872219,11.918603759230935,-1.8377644626709406
41.519054554520295,34.627694725111205,1.1158526808918188
62.22451551111865,42.418170340270095,0.7626773295681615
21.6845984602188,17.936129109993374,-1.9111314703295235
19.253802829613406,14.397981968105327,-1.8526335260430322
47.743540974316794,36.01616983186625,0.9293061206991384
23.198313569537188,21.155937791304492,-2.0073434741897382
23.53516875350034,15.923692586698198,-1.5499482356966494
68.09205495731334,56.89179008478691,4.803922491399855
47.65537577550151,35.95806771442358,2.3059631993271164
39.19337756473533,32.53098937392501,-2.460054480533095
11.775663831460264,8.756723913969376,-0.6278930940328922
75.59888407494185,63.29974586829872,11.645406427146916
72.41906427548446,54.779864760232165,7.111467969708285
38.0888557880812,34.85852676845734,-2.247061267668798
43.99738757289531,29.84028484754842,-1.8588627375321938
71.80288419215846,54.49959893386254,16.073161278552462
45.84023280334852,38.06999264780951,-1.5353477985540285
3.5442444285452104,2.502812856796992,-1.6218868324435836
43.83269465313622,40.041801100347215,-1.2416429260664563
11.621116615725995,8.614810208265668,-0.29017776065993556
5.329776727024684,4.2316561834272575,-1.618262150769751
7.6042346946383255,5.555502714445772,-1.6417857417164463
61.506848471692656,41.60539736919835,-0.9573825215886846
9.223172240237195,7.465989002611115,-1.650771568164272
11.668055213340919,8.609592237157555,-1.665274661416799
47.91190594620797,35.88819165496691,-0.44699922326732494
13.184364495075899,10.755629971520053,-1.6910868288978522
17.707466336860897,11.866762594946492,-1.838159515797463
41.700109992387276,34.52303240959506,1.120984818472712
62.18993281831281,42.06364550983255,0.7664323811003979
21.770983732979197,17.876132923489074,-1.9112458694368288
11.680152324133923,8.622420457651799,-1.0275498107928542
47.91588953472875,35.87389015464295,0.9343096531668846
23.35746324692766,21.14793027868367,-2.0130550911086416
23.480711715217282,15.76942869155334,-1.5398055911181072
68.39039859113622,56.73963720271624,4.816911679190245
47.69655915291759,35.730653757360756,2.306358912280839
39.3306618955153,32.41609755333979,-2.458252018440235
11.687101547566638,8.62869589375418,-0.6184532966806537
75.8421726680516,63.0571973483661,11.655876750424703
71.53442931169565,53.70036244062498,7.0139307590030375
38.23336333929142,34.73666938227245,-2.2445559910175255
44.19518219392819,29.741018746107844,-1.8591407379387568
70.95031867574737,53.444712821145785,15.846412822113345
45.94483220044839,37.87546591330045,-1.5297960349893482
3.549351859454349,2.489977729766599,-1.6199118882253956
44.2049137029161,40.10309579225973,-1.2452712950792564
11.618298110410679,8.55193872977417,-0.2878500641926505
5.346804433757768,4.217148783656763,-1.6189275856955165
7.6386374874402465,5.542277059496386,-1.6451779357906953
72.67012991566374,59.862541236379734,-0.3520291856765491
60.877278462611876,40.8870059687309,-0.9382123951958559
9.250274331218327,7.439478483724705,-1.6506644147594771
11.761019948582538,8.61779348365382,-1.6747725730573617
69.11186338522778,62.79990306291728,0.103336827618867
71.15958906932954,52.97493577380881,-0.7471056693810998
13.22421029537537,10.713762043680251,-1.6903989113046944
17.794404335018484,11.837609497025115,-1.8421040028556983
72.50053793612351,59.714767013095376,1.8233548652475566
60.86191287279421,40.85674880132518,0.757673286875896
21.86953181039079,17.83214590548311,-1.9129583917783086
11.688794901495296,8.570969497310834,-1.0245546500500902
69.18473093057399,62.85748347079804,2.268796780113827
47.76124056234407,35.513082195195366,0.9339208104288492
23.441588834860497,21.085401075367052,-2.0124660055205186
23.48515856708994,15.655738916968975,-1.534133961488308
68.62074540080265,56.53010584645834,4.8253102620778705
71.55671746619407,53.27780605655292,3.376948231137408
39.47068396565443,32.30319035724498,-2.4566506318338273
11.6490766013664,8.539496750726387,-0.6126833407417791
76.07859498439159,62.80862125490368,11.665427923220808
70.70447967137875,52.71231930382299,6.923252340448175
38.374323531014646,34.63551264989794,-2.242958900342452
44.35598768231405,29.638219218185224,-1.8585376305376324
70.12331588399333,52.45900811856341,15.630050246369757
46.381419493302865,37.981017350078,-1.537617621198132
3.559858734951526,2.481928632370404,-1.621364853660673
44.23319907101864,39.86397300635819,-1.2380818495587194
11.613734302421888,8.491134770923182,-0.2855756751443934
5.348158667130747,4.191307348630078,-1.614114534955107
60.496368964565114,40.342102276663134,-0.9238227378864994
9.274239922669986,7.410370832143901,-1.6499188792737107
11.859090096625616,8.63213978690871,-1.6853551190018492
13.271327820631523,10.681511927993645,-1.691118538797987
17.842862245970828,11.786765572900718,-1.8418632173521612
60.53055180287819,40.34528456388712,0.7580976116265956
21.946431710680212,17.77629646800398,-1.9129495381316426
11.735693348677046,8.547957027875023,-1.0256897597556338
69.8633325734036,51.64431707437197,1.287870357337499
23.528524461769017,21.02520439089148,-2.0121537236527813
23.526310567916582,15.57274852190439,-1.5315327679198905
68.78822332506373,56.28849914082037,4.82984529623862
70.14220946073192,51.86366032967963,3.311455442544419
39.59242429348138,32.1864191048688,-2.454381112817446
11.641264753955916,8.476317113061931,-0.6092512990135448
76.39543180044355,62.64809924444451,11.688603293052118
69.83038566048431,51.70181436571453,6.82873118847718
38.50614613937766,34.525756968745526,-2.240785844616012
69.34113157647515,51.51701470266758,15.424711890170387
46.36707135706809,37.71483833060416,-1.5285217700910476
3.57114041624591,2.4727576027201916,-1.6227904205315724
44.39309039491636,39.71675001265648,-1.2343437539038378
11.618188831176196,8.431306113912363,-0.28347869998247754
5.371744212738366,4.1806907531635025,-1.6169567266126115
9.314144207936257,7.38650474114367,-1.651602074419408
11.75005391410039,8.527296816604988,0.0373116032254428
13.325101769665077,10.647094282385135,-1.6921713250098518
17.898518915443656,11.731855967872194,-1.8418589232402924
60.733790439101504,40.16245452912979,0.7640033818585399
22.051001687078248,17.730187249014097,-1.91485174545965
11.719392226337627,8.469362519558363,-1.0194565258062553
69.68427892992125,62.412248803170534,2.2833832625551427
48.26049878517013,35.356174936617606,0.9463433895957769
23.620223755877962,20.94724156750973,-2.010955333180606
23.532504032502988,15.455219979225216,-1.5257743828879167
69.12292710294054,56.14359311286175,4.845088399672388
69.97006738326739,51.34264440471931,3.3016423940641246
39.737374674947915,32.06554485486256,-2.4525890104298558
11.648899548378026,8.418831260253278,-0.6066378875365168
76.64129056119071,62.38417945787627,11.69852226834863
68.99597196628991,50.67603731566835,6.736775047133273
38.66448486212211,34.40354155699924,-2.238649288308388
68.50685453501625,50.49123108201536,15.204022344464937
3.579061608259759,2.461965817901132,-1.6225218972134712
44.399461644515966,39.446076824611914,-1.2261097250618016
11.630625429197528,8.380568522110178,-0.28183722616908263
5.388619114862539,4.166005466050365,-1.617620053414286
7.710069396062381,5.478567822460574,-1.647313961117649
60.90888376825808,39.99523258532883,-0.91566994033072
9.341010001522442,7.359663422544234,-1.6514907284776554
11.681725679265714,8.37806158506001,-1.644626227911706
69.91834152786278,62.21632263061135,0.12215991961246132
11.772485463625912,8.483157712814101,0.038374859293212826
13.376984426772513,10.614666725451219,-1.6932771511595421
17.955330183049625,11.68192190937108,-1.8423107654394095
60.9226121101405,39.99979282075477,0.7694104825678072
22.133876552752547,17.678607787315407,-1.915432758944732
11.685470662413561,8.387522600128408,-1.0120041262935005
68.30695699280818,49.74349779878654,1.2694764427243093
23.700850890357877,20.88102545212229,-2.0100693881576133
23.56890946971004,15.363738114539432,-1.5225864646083007
69.32667298277654,55.91103253885656,4.851843105886031
68.55714460473885,49.956653540159174,3.236445443209652
23.243649711867,18.569985491115094,-1.339562801191724
11.676028296417513,8.38174193663295,-0.6057157999141372
76.86163764897908,62.143511346207795,11.707306177881465
68.19976493857071,49.74463806340134,6.650512461214718
38.792659570138525,34.29004182507015,-2.2362722814779166
23.713654116155013,15.45686375641507,-0.8849200974443094
67.7173229512037,49.58251434179759,15.000864954022672
23.203923090207283,18.535704880778347,-0.6559484583961641
3.5802631682958066,2.4480335902446715,-1.618867209667976
44.45368992043433,39.24691557759353,-1.2203004231493124
11.649716360664163,8.340789290175417,-0.28069733566080013
5.401057461392064,4.150579703694377,-1.6172270988610808
7.729803616824155,5.4581291444238085,-1.6475512540038684
46.98053301099378,37.5926595580227,-0.14177307897231384
61.10072139451402,39.83404470201058,-0.9118961052858723
9.370877632270002,7.335185101281694,-1.652014327009655
11.705573890491682,8.338565526090795,-1.6431803457575695
11.809503491581019,8.452683928386115,0.039183198350974974
13.417662933635425,10.576826555025052,-1.6930869857617994
18.003335426796088,11.630450227827772,-1.8420619514751122
61.10431774254802,39.831946535551666,0.7747640631211903
22.216649086477478,17.626676063377516,-1.916007959607477
11.706063229332827,8.345651584987458,-1.0103940994981566
40.65758853230072,35.85738708497344,1.4023352101049587
67.58978317003425,48.879858475520656,1.2609211580680226
23.775298850497286,20.809229251485018,-2.00861665828487
23.55880158677436,15.247952246851488,-1.5162964487154171
69.5323521906698,55.69986355555441,4.859140307510496
68.47438493514133,49.53330252624786,3.230894014976155
23.301364256329546,18.48544933633879,-1.3371225689704342
11.69474197517589,8.335585188466071,-0.6040632501708723
77.10125553865032,61.89610223783725,11.717837276800429
67.3129732435648,48.73953717242364,6.5554596724084595
38.92340696898023,34.16675594470593,-2.2335268523159124
23.625955912441334,15.284189602358722,-0.876513422116868
66.92569078612908,48.62822925156818,14.793528452220233
23.22091625503962,18.412365145560628,-0.6519919459659957
3.5888789597704744,2.4361264071307778,-1.618571948014495
45.19459759819438,39.59828371762935,-1.234627957827873
11.67430500035092,8.293152792433181,-0.27936414405672694
5.419214447482066,4.13405163194607,-1.617845030806889
7.7563262302942055,5.434824346542448,-1.6484637109538172
47.079851075700425,37.37892520945272,-0.13692578799353156
61.30260197585142,39.64855597036938,-0.907534748097812
9.403171795200285,7.307466249790556,-1.652457020799687
11.761125464887144,8.31585711024744,-1.6463386829512194
11.862290280921098,8.427426209329747,0.039929053373900875
13.468070232875947,10.539243660578485,-1.6936791498433086
18.065210556604086,11.579110507750844,-1.842817726120555
61.366638135637984,39.67058959582734,0.7814928752338657
22.305293876546813,17.560473369567188,-1.9159865906362339
11.76495754856581,8.325345150675409,-1.0124586933142017
40.96490289246095,35.86571521944722,1.4115587706857589
66.80962107541076,47.94464205366765,1.25159573552792
23.93171226053471,20.794761219251267,-2.013972940449467
69.74736321473459,55.45617958024576,4.866429420804978
66.97023566213967,48.07216511580481,3.1616465204141866
12.165475426882741,9.512956972465576,-0.5923705216142421
11.753633758762055,8.315347926058148,-0.6050839011500952
77.4500596997099,61.713720883039436,11.74363748398131
66.62715329293422,47.89035914438014,6.479941033687701
39.09586546266235,34.079802663843275,-2.233406331643204
23.617961254577963,15.164304250871288,-0.8718023653590976
66.62722102214136,48.05873627591085,14.697062925377795
23.22789615939854,18.288149412933233,-0.6479146240207854
3.5962818944242576,2.4258177787446957,-1.6183167851570346
45.05099282635905,39.21031100614106,-1.2221246196613706
11.717266798207962,8.267583946150133,-0.27911197146105127
5.423152821768983,4.110551594459844,-1.6141335174913958
7.773649322951787,5.410684357259961,-1.6478662920189084
47.26548964679125,37.27385402413587,-0.1334236851312176
61.510480037800626,39.4815056879018,-0.9036587701819476
9.434136864792823,7.281180745025561,-1.6529376454794713
11.823534421714644,8.303699647443246,-1.651155692963328
11.937841001040818,9.264132921186118,-1.4674576612309682
18.122976715282622,11.533644780795711,-1.8437180016746768
61.54076077088285,39.49658987523159,0.7868075248907198
41.11303665735888,35.74517264564035,1.4159773579912507
66.04467330805863,47.048121796027694,1.242292639293647
24.00950530992373,20.718049580097347,-2.0124001731299863
23.57922947332538,15.032674117140761,-1.5062504165163328
70.05504003148157,55.325246685640494,4.880722637372505
66.8127721616521,47.62596548967113,3.1529838194944384
12.073865000555605,9.377721244226013,-0.583306547293927
11.767405815673815,8.268646902700269,-0.6032520655115603
77.67766590246521,61.47756877917928,11.753857815535783
65.58913106581915,46.79835711400141,6.3712934942436155
39.232006459557496,33.960584323875175,-2.231019077331155
23.62959382359517,15.057613060329546,-0.8680175691954775
65.43616200425171,46.85359780666248,14.405795904033592
12.07746236049176,9.376136164496621,-0.23862206291767218
3.6070085823613,2.4170061143261563,-1.6197535568627555
45.08720109566017,38.96800443241087,-1.214950001908052
5.442848738670227,4.098010554733208,-1.6158928414785045
7.798207918511235,5.389721508989415,-1.6488390261903607
61.701033698333546,39.317660109797735,-0.8998452670206099
9.457574904908252,7.251464375110608,-1.6521849342935842
41.08172816127288,35.48584779588136,0.16237540763222785
65.30201985472921,46.19954992707377,-0.6164045104901825
11.950617069947965,9.209402742154063,-1.4637491478178537
18.189329371685734,11.489104088493395,-1.8453091648767033
61.72460127400281,39.31330267433568,0.7924234988305638
11.974967687398642,9.235935457335938,-0.915106918568253
19.909610998610617,13.961234514657175,-1.8611597182238557
41.08852574600336,35.48700637594415,1.4151802188360902
65.35765194697345,46.23360951674747,1.2340340869197652
24.077438966395185,20.63993958881918,-2.010369906849337
23.5803042488114,14.919862044301567,-1.5006228215277195
70.27167803323582,55.101695291565775,4.88857550734488
65.47439155837496,46.32811623122596,3.091455848973025
11.995653243376164,9.25102773186139,-0.5750389640250941
11.749765314021502,8.196937764848057,-0.5991112801235905
77.98070204401208,61.27867919798347,11.774230663346556
65.29730420958346,46.265688532546356,6.334364329132301
39.36494098125149,33.850225577176964,-2.2289884155543973
23.624711417539373,14.946464679576684,-0.8637252350826687
65.1821730822509,46.34732618121992,14.32213738001887
12.17387275090244,9.389349027968159,-0.24003737269717595
3.6203017107884246,2.4107501970014757,-1.6229083264806168
41.01513882674138,35.19768838268824,-1.0802392958730538
5.46184245710655,4.0862443583094485,-1.617672417801491
7.815382047988783,5.365442642522488,-1.6482402041328856
74.54533453115002,58.05144819428085,-0.30249989084676493
61.904726328644394,39.14654127428401,-0.8958801014360598
9.48526264640839,7.222519917932391,-1.652027042666308
12.419067639226803,8.602015109583872,-1.7357753367073996
41.18329560771206,35.32561997222596,0.16606825900085662
49.90591293113552,35.03789093321772,-0.42109996309312075
11.970995907906353,9.164025542147247,-1.4614404719653633
18.243518541167155,11.440966605469471,-1.845816491403912
47.52425620006586,36.9560496067276,1.2637960303798157
61.94842287986776,39.16988348273467,0.7982659464345154
11.982781769969593,9.180628911475855,-0.9120453925522989
19.980383382829466,13.909379100615055,-1.8618805495251474
41.2051644015985,35.339781192588774,1.4186809062838042
64.57565788172562,45.34397876031222,1.224321982837366
24.163785241366803,20.570493308534363,-2.009631956839335
23.591014458137096,14.813597168668641,-1.4957378814930269
70.48449485325071,54.874808833731684,4.896227808485561
65.3437615892349,45.8960859197267,3.0840479269248022
11.970326605322445,9.166651367571639,-0.5703023384275134
11.803702910312532,8.175883751434084,-0.5999476638719203
77.92958439451901,60.80195952639367,11.74185533950506
65.28110129464471,45.914959049112916,6.323274753575058
39.506421156234396,33.73518676786158,-2.226962372334515
23.648948926739628,14.84852974483921,-0.8605611788637537
64.00111782111127,45.17243919631254,14.035405177275607
11.997377199161965,9.186573989947494,-0.23151044077670296
3.622421216565623,2.3951471255294052,-1.6192148264285313
45.247302350608315,38.562085249543756,-1.2034637543699889
5.479111495967453,4.070311918421884,-1.6183087384580814
7.843934362850669,5.345237283575725,-1.6499791310895238
76.6919989827216,59.27874561405759,-0.308108071171641
62.114715778146746,38.96375481309051,-0.8916432261615184
9.520332666930399,7.19671235253487,-1.6530980022119122
12.467873245347592,8.573892170056743,-1.7378762507869547
50.12170440318298,34.91835144078263,-0.4177058684158243
12.098216830983722,9.194650815634233,-1.473832212136754
18.244109430259172,11.350475190231116,-1.8396411467033769
47.57939634607094,36.722100405816754,1.2663366803013467
62.11096256862609,38.95709119068469,0.8038920552470457
11.99977841106927,9.126229314871832,-0.9094840078711011
20.00434248661467,13.819635811952852,-1.8573861988551492
41.163295845353275,35.044643108457166,1.4173922464616147
63.90425457067208,44.52483437915106,1.2164881306668542
24.244390402575622,20.488763162302664,-2.007941685548053
23.611409714709254,14.713803855594929,-1.491593762741269
70.77864724996495,54.71074258144545,4.9094076086139165
63.98538206032566,44.60934731813169,3.021821103034651
12.004648790193277,9.128919357358315,-0.5694954580884963
76.65548707469286,59.37862239675345,11.527676921035294
63.833226062147325,44.5478583039172,6.176428298315943
39.64127071410238,33.602336797487304,-2.2240025986249012
23.654981095659252,14.733850402790862,-0.8563921500623033
63.56808199833186,44.52038518811246,13.911409742149639
12.052307320455778,9.161369082350403,-0.23123677686952104
3.6330623236479536,2.3862133610473384,-1.620650112470976
45.286444182635414,38.325322693262876,-1.1965095406980515
49.834648359886835,34.46600873566244,-1.8083449274396537
5.489533147311837,4.050525462014297,-1.616771603936593
7.865082813802503,5.321741189339674,-1.6501471377840233
75.08715910513367,57.61999897288335,-0.28992276007250467
62.324255614523324,38.79494153589527,-0.8877669339557701
9.547846444586929,7.167526154106821,-1.6529369701297008
12.510098504795808,8.541023958622159,-1.7389311401408136
41.26268374155339,34.90068723420261,0.17348384712503448
50.43641825654628,34.87934911238145,-0.41576702991431264
12.180040887253385,9.192703561761878,-1.4799818482276779
18.306614618114633,11.303128329455266,-1.840838916852722
47.02475771855574,36.03327863496083,1.2547924401250774
62.2728575338238,38.758619982736015,0.8093357212626031
12.037156282731194,9.090809126231632,-0.9090677250826371
20.045218413924594,13.746908648596314,-1.8550278700247742
71.689303204708,60.7291965925047,2.343312731392183
63.26282597910708,43.751817594521846,1.2089363083129179
24.327261861694872,20.4160395207596,-2.006914175686637
